ply
format ascii 1.0
element vertex 249
property float x
property float y
property float z
property float nx
property float ny
property float nz
property uchar diffuse_red
property uchar diffuse_green
property uchar diffuse_blue
property uchar class
property uchar detection
end_header
-195724.5938 -121187.6562 -3753802.5000 -0.051 -0.399 -0.916 89 78 71 0 0
-195716.0312 -120907.6797 -3753912.2500 -0.074 -0.423 -0.903 94 83 76 0 0
-195629.0938 -122074.3516 -3755820.5000 0.525 -0.156 -0.837 127 114 105 0 0
-196600.5625 -121709.9609 -3755335.2500 -0.198 -0.772 -0.604 129 114 104 0 0
-213800.1875 -124419.0859 -3735999.2500 -0.512 -0.846 -0.147 109 106 108 0 0
-209701.7969 -126097.9609 -3741415.7500 -0.405 -0.914 -0.016 171 169 178 0 0
-210036.0625 -125895.6328 -3741676.0000 -0.388 -0.921 -0.010 191 189 196 0 0
-210346.7031 -125440.2031 -3741483.5000 0.484 -0.549 -0.681 212 211 218 0 0
-210303.6406 -125181.8047 -3741634.2500 0.438 -0.516 -0.736 209 208 214 0 0
-220799.3281 -121974.9688 -3731057.5000 0.183 -0.976 0.121 214 224 236 0 0
-220282.1875 -121958.4062 -3731675.0000 0.177 -0.980 0.095 207 219 233 0 0
-220962.7500 -121286.8984 -3731131.5000 -0.363 -0.931 0.021 171 180 191 0 0
-210648.9375 -125537.6016 -3741669.7500 0.677 -0.424 -0.601 195 191 196 0 0
-197215.7344 -122934.5703 -3758553.2500 -0.500 -0.654 -0.568 163 159 161 0 0
-196946.1250 -122829.2109 -3758912.5000 -0.477 -0.678 -0.560 136 129 129 0 0
-221155.1406 -122062.1250 -3731224.2500 0.183 -0.976 0.121 220 231 245 0 0
-220647.5156 -122039.5078 -3731831.5000 0.177 -0.980 0.095 211 223 237 0 0
-220150.6719 -122012.4141 -3732427.7500 0.364 -0.919 0.150 190 202 214 0 0
-207837.8594 -125395.7344 -3746763.2500 0.873 0.265 -0.409 149 148 154 0 0
-206138.6562 -118316.5625 -3753887.0000 -0.290 -0.876 -0.385 69 62 65 0 0
-214064.3750 -126627.9844 -3741895.0000 0.654 -0.703 0.281 224 232 234 0 0
-206898.5781 -118121.3828 -3753667.2500 -0.315 -0.862 -0.398 86 82 85 0 0
-206433.0000 -118119.9922 -3754207.0000 -0.387 -0.864 -0.323 78 77 79 0 0
-206586.2969 -117725.5312 -3754190.7500 -0.459 -0.657 -0.598 102 103 108 0 0
-214525.2969 -126924.1406 -3741822.7500 0.885 -0.437 0.162 220 228 230 0 0
-214131.1250 -126854.6484 -3742306.7500 0.654 -0.703 0.281 228 235 237 0 0
-213787.9844 -126758.7188 -3742742.5000 0.569 -0.718 0.402 220 228 228 0 0
-178758.7812 -93554.8125 -3796850.0000 0.249 -0.243 -0.938 158 143 129 0 0
-214789.1094 -127324.8516 -3741935.0000 0.985 -0.097 -0.144 170 179 180 0 0
-214608.3750 -127141.5000 -3742219.0000 0.880 -0.467 0.085 220 227 228 0 0
-214197.7188 -127080.6953 -3742717.2500 0.654 -0.703 0.281 229 236 235 0 0
-213785.1875 -127021.8984 -3743217.0000 0.569 -0.718 0.402 215 224 222 0 0
-178975.5156 -94055.9453 -3796954.7500 -0.215 -0.770 -0.601 195 192 188 0 0
-214724.1875 -127619.2266 -3742467.7500 0.990 0.125 -0.067 201 210 209 0 0
-214735.2969 -127335.0703 -3742573.2500 0.840 -0.541 -0.039 221 229 227 0 0
-214264.1250 -127306.1484 -3743126.7500 0.654 -0.703 0.281 230 236 235 0 0
-214321.2812 -127535.8125 -3743543.7500 0.994 -0.010 0.110 223 228 227 0 0
-185006.0312 -83280.2812 -3796877.7500 0.776 0.443 -0.449 161 147 142 0 0
-185691.1406 -82977.4453 -3797433.2500 0.738 0.482 -0.472 189 171 167 0 0
-204526.8594 -123227.5000 -3759921.2500 0.365 0.317 -0.876 215 233 242 0 0
-205732.2812 -123587.3672 -3760075.5000 0.755 -0.481 -0.444 215 232 242 0 0
-205706.8594 -123322.7656 -3760220.7500 0.780 -0.576 -0.243 224 241 252 0 0
-206086.9219 -122249.6016 -3760268.2500 0.098 0.079 -0.992 221 240 252 0 0
-173299.5469 -132947.2656 -3795772.7500 -0.400 -0.401 -0.824 70 60 55 0 0
-220124.7031 -124111.5703 -3749642.7500 -0.107 -0.990 0.096 124 121 128 0 0
-220699.7656 -124361.6094 -3749487.2500 0.498 -0.858 0.126 107 105 104 0 0
-220330.6406 -124270.3125 -3749932.0000 0.533 -0.810 0.245 100 96 93 0 0
-220303.5938 -125688.1250 -3749881.0000 0.878 0.345 0.331 97 95 101 0 0
-220528.9531 -125003.3359 -3749958.7500 0.867 0.334 0.371 97 95 99 0 0
-220709.2812 -124623.6875 -3749941.7500 0.863 0.309 0.399 85 80 77 0 0
-221152.4688 -124657.7500 -3750032.2500 0.762 0.501 -0.410 112 108 105 0 0
-221457.9531 -124211.1797 -3749912.7500 0.752 0.516 -0.411 92 84 77 0 0
-221254.4219 -124870.5859 -3750408.0000 0.734 0.512 -0.446 95 88 82 0 0
-166615.9219 -116495.6406 -3815670.2500 0.816 -0.106 -0.568 166 153 141 0 0
-220299.3750 -128156.1094 -3757862.7500 -0.109 -0.941 -0.321 164 161 153 0 0
-193405.6406 -138500.8906 -3780585.5000 -0.123 -0.313 -0.942 198 224 241 0 0
-221342.2969 -128162.4062 -3757341.7500 0.138 -0.792 -0.594 125 118 110 0 0
-221084.9219 -128016.2812 -3757683.7500 0.006 -0.898 -0.439 148 142 135 0 0
-221563.0156 -128031.6562 -3757747.5000 0.039 -0.892 -0.450 134 126 119 0 0
-220787.9844 -128144.3594 -3758492.0000 -0.102 -0.994 -0.047 151 146 141 0 0
-222057.6406 -128039.6484 -3757799.7500 0.148 -0.953 -0.265 142 135 129 0 0
-221370.1406 -128107.1406 -3758474.7500 -0.079 -0.997 0.009 149 143 139 0 0
-221341.0625 -128374.8672 -3758931.5000 0.302 -0.863 0.406 150 145 141 0 0
-173703.4219 -98859.5938 -3823322.7500 0.389 -0.874 0.290 244 139 143 0 0
-220960.2031 -129066.6172 -3760087.0000 0.743 -0.326 0.585 160 154 157 0 0
-230656.2969 -121625.8438 -3754659.0000 -0.176 -0.969 -0.176 195 209 220 0 0
-230101.6250 -121614.1953 -3755231.7500 -0.407 -0.667 -0.624 200 217 228 0 0
-194174.6250 -92286.4062 -3809666.5000 0.735 -0.291 -0.612 145 121 107 0 0
-197406.1719 -144508.5625 -3780225.2500 0.542 -0.794 0.275 77 68 71 0 0
-197727.4844 -144557.8750 -3780331.0000 0.676 -0.726 -0.131 82 73 74 0 0
-197897.6250 -144676.7969 -3780549.7500 0.676 -0.726 -0.131 110 100 99 0 0
-234287.2031 -132933.0000 -3751988.2500 0.574 -0.677 0.462 190 184 185 0 0
-180173.6094 -116944.0703 -3819493.0000 0.655 -0.223 -0.722 117 98 95 0 0
-178471.2188 -155557.5938 -3804905.0000 0.422 -0.284 -0.861 192 189 196 0 0
-200151.1250 -144085.2031 -3798342.5000 0.833 -0.406 0.375 106 90 85 0 0
-199952.5312 -143962.3594 -3798596.7500 0.668 -0.579 0.468 96 80 71 0 0
-200069.4688 -144315.6875 -3798698.5000 0.782 -0.372 0.500 139 128 122 0 0
-197213.8281 -142872.4531 -3802141.0000 -0.305 -0.736 -0.605 51 34 26 0 0
-199945.5312 -144564.3750 -3799077.7500 0.782 -0.372 0.500 154 141 134 0 0
-198337.8906 -144027.9688 -3800832.5000 0.855 -0.167 0.492 43 33 25 0 0
-198010.3594 -143967.8750 -3801157.7500 0.044 -0.415 -0.909 36 27 19 0 0
-198137.0469 -142630.0938 -3801924.0000 -0.261 -0.734 -0.627 87 73 65 0 0
-197852.1875 -142550.8594 -3802224.5000 -0.348 -0.801 -0.487 69 55 50 0 0
-197515.1875 -142497.0781 -3802554.0000 -0.360 -0.809 -0.465 51 39 34 0 0
-197193.5312 -142436.6875 -3802874.2500 -0.363 -0.833 -0.418 41 30 25 0 0
-196682.0000 -142468.3750 -3803300.0000 -0.360 -0.849 -0.387 44 34 30 0 0
-198663.9531 -144703.6250 -3800534.0000 0.522 -0.635 0.569 129 112 103 0 0
-198343.3125 -144639.4844 -3800855.2500 0.606 -0.504 0.615 110 91 81 0 0
-198364.6094 -144419.2969 -3800981.5000 0.822 -0.202 0.533 93 76 68 0 0
-198280.6406 -144247.0000 -3801168.0000 0.842 -0.265 0.470 76 60 53 0 0
-198815.2812 -142290.4219 -3801989.2500 -0.333 -0.774 -0.539 149 135 137 0 0
-198474.8594 -142236.5625 -3802321.0000 -0.333 -0.815 -0.474 136 120 121 0 0
-198275.6406 -142115.9531 -3802573.7500 -0.363 -0.833 -0.418 112 96 94 0 0
-197472.2969 -142285.4062 -3803161.2500 0.507 -0.840 0.194 95 79 75 0 0
-197250.8750 -142177.0781 -3803425.2500 0.264 -0.959 -0.101 69 56 49 0 0
-197179.6250 -141996.4844 -3803606.0000 -0.261 -0.814 -0.519 50 39 32 0 0
-198315.5469 -145052.4844 -3801034.7500 0.736 -0.257 0.627 158 144 138 0 0
-198046.9844 -144965.2969 -3801325.2500 0.746 -0.240 0.621 141 126 120 0 0
-198615.9688 -144496.0469 -3801141.2500 0.520 -0.822 0.233 139 125 119 0 0
-198289.7344 -141875.5781 -3803153.2500 -0.361 -0.860 -0.361 142 125 123 0 0
-198015.9531 -141791.1250 -3803446.5000 -0.326 -0.763 -0.558 113 98 94 0 0
-197868.1875 -141646.2500 -3803670.2500 -0.313 -0.719 -0.621 95 82 79 0 0
-199067.7500 -145112.2188 -3800770.5000 0.407 -0.787 0.464 176 165 160 0 0
-198034.6562 -145369.1250 -3801494.2500 0.736 -0.257 0.627 169 157 153 0 0
-197767.2969 -145281.9844 -3801783.2500 0.746 -0.240 0.621 159 145 142 0 0
-198774.6562 -144615.1719 -3801353.2500 0.492 -0.865 0.098 168 156 153 0 0
-198620.7969 -144474.9062 -3801579.2500 0.913 -0.362 0.189 161 151 147 0 0
-197758.0625 -145682.3281 -3801949.2500 0.746 -0.240 0.621 162 150 147 0 0
-206467.3125 -116170.1719 -3821117.7500 0.861 -0.470 0.197 106 83 74 0 0
-232342.0938 -146876.0625 -3788730.2500 0.192 -0.400 -0.896 149 149 143 0 0
-232417.0156 -146623.0156 -3788859.5000 0.192 -0.400 -0.896 160 160 153 0 0
-232408.5938 -146397.9531 -3789032.5000 0.259 -0.549 -0.795 155 155 147 0 0
-195155.5312 -147400.7812 -3817170.2500 -0.188 -0.948 -0.255 160 158 170 0 0
-204133.1406 -137876.9219 -3824606.0000 -0.317 -0.820 -0.477 199 206 211 0 0
-217441.9375 -93308.0938 -3851599.7500 0.016 -0.883 0.469 102 73 48 0 0
-175780.5312 -163543.3906 -3827656.0000 0.424 -0.578 -0.698 186 202 217 0 0
-257342.2188 -152220.4219 -3794940.2500 0.630 -0.563 -0.535 158 169 183 0 0
-257777.3281 -151875.5938 -3794956.7500 0.880 -0.172 -0.442 163 176 190 0 0
-217643.3438 -132661.8438 -3837124.7500 0.605 -0.248 -0.757 124 121 111 0 0
-217687.8906 -132403.2656 -3837317.5000 0.589 -0.380 -0.713 121 118 111 0 0
-217746.5469 -132137.2188 -3837507.7500 0.589 -0.380 -0.713 160 162 159 0 0
-257373.7969 -152631.4062 -3795068.0000 0.462 -0.705 -0.538 145 154 163 0 0
-218011.5156 -132465.8906 -3837506.5000 0.699 -0.291 -0.653 142 137 127 0 0
-218036.9375 -132215.9844 -3837704.7500 0.607 -0.429 -0.669 169 169 163 0 0
-218095.5938 -131949.4375 -3837896.0000 0.589 -0.380 -0.713 190 194 192 0 0
-257964.6250 -152438.2500 -3795357.5000 0.803 -0.502 -0.322 118 124 126 0 0
-258098.8438 -152173.5469 -3795499.7500 0.435 -0.720 -0.542 130 138 144 0 0
-258202.7969 -151916.0781 -3795655.2500 0.765 0.344 -0.545 155 164 173 0 0
-258101.8281 -152363.5469 -3795835.2500 0.707 0.207 -0.677 129 138 140 0 0
-186119.4062 -158810.2188 -3836874.5000 0.665 -0.574 -0.478 168 157 151 0 0
-186378.6406 -158047.9844 -3837698.7500 0.412 -0.511 -0.754 211 221 232 0 0
-186337.7188 -157901.6094 -3837851.7500 0.222 -0.546 -0.808 204 217 230 0 0
-186298.3750 -157754.4219 -3838004.2500 0.214 -0.664 -0.716 192 206 221 0 0
-266741.9375 -152819.3750 -3794614.2500 0.290 0.113 -0.950 179 183 190 0 0
-267148.3438 -152483.9375 -3794660.0000 0.354 0.092 -0.931 168 171 175 0 0
-267808.5625 -152278.5312 -3794952.7500 0.404 -0.136 -0.904 133 134 130 0 0
-270799.6250 -148789.9531 -3797259.7500 0.134 -0.313 -0.940 147 157 158 0 0
-271060.4062 -148476.5625 -3797379.0000 0.081 -0.401 -0.913 149 157 159 0 0
-209469.2656 -141316.7656 -3844728.0000 0.954 -0.219 0.203 208 221 233 0 0
-211965.6406 -149410.5781 -3836345.2500 0.659 -0.082 -0.748 206 215 226 0 0
-209291.5469 -140744.1094 -3845751.5000 0.985 0.110 -0.132 187 203 213 0 0
-190031.1719 -171362.4688 -3832287.2500 0.003 -0.851 -0.525 127 119 122 0 0
-231980.0312 -120769.4531 -3857861.2500 0.629 0.230 -0.742 150 152 157 0 0
-198088.7031 -147323.5938 -3853195.0000 0.179 -0.643 -0.744 189 184 179 0 0
-229392.5469 -129113.6016 -3853337.5000 0.941 -0.064 -0.333 176 165 164 0 0
-198588.0938 -147276.2344 -3853326.0000 0.170 -0.675 -0.718 173 164 160 0 0
-198492.6406 -147129.4219 -3853516.2500 0.258 -0.683 -0.683 182 176 172 0 0
-199341.6406 -146569.9688 -3853584.7500 0.567 0.350 -0.746 180 172 166 0 0
-199070.2969 -146498.6250 -3853798.5000 0.612 0.405 -0.679 160 152 143 0 0
-222823.3438 -151744.7500 -3836409.2500 0.312 -0.626 -0.715 117 109 113 0 0
-199256.2969 -146208.2500 -3854332.5000 0.692 0.426 -0.583 66 57 46 0 0
-199101.6875 -148329.1875 -3852767.7500 0.629 0.078 -0.774 120 99 86 0 0
-235720.5938 -122400.9375 -3859118.2500 0.822 0.199 0.534 153 156 161 0 0
-206548.3281 -158428.7031 -3844806.2500 0.621 -0.074 -0.780 118 119 113 0 0
-207408.4531 -156940.4219 -3845827.5000 0.822 -0.416 -0.388 152 146 143 0 0
-285223.3750 -159722.9062 -3804544.7500 0.613 0.425 -0.666 145 158 168 0 0
-285551.7812 -159429.1250 -3804668.0000 0.651 0.421 -0.632 142 155 165 0 0
-286897.9375 -158470.3125 -3804932.7500 0.278 0.180 -0.944 201 217 232 0 0
-202080.0312 -165410.7500 -3842815.0000 0.993 -0.111 -0.043 173 166 158 0 0
-232505.1719 -136645.5000 -3856554.5000 0.304 -0.626 -0.718 180 192 201 0 0
-235739.6250 -134521.7656 -3858877.5000 0.748 0.125 -0.652 119 114 110 0 0
-190932.2500 -170821.7188 -3844584.7500 0.664 -0.034 -0.747 223 239 254 0 0
-245806.7969 -100707.0156 -3890464.5000 0.012 -0.940 0.342 181 156 118 0 0
-245255.7188 -100989.3125 -3892005.7500 0.033 -0.851 0.524 188 162 124 0 0
-245474.7969 -101154.3125 -3892259.7500 0.033 -0.851 0.524 189 164 126 0 0
-245857.7969 -101223.0312 -3892536.5000 -0.067 -0.857 0.510 191 165 128 0 0
-245025.2188 -101404.4453 -3892731.7500 -0.067 -0.857 0.510 172 146 106 0 0
-246129.3750 -101357.3125 -3892797.7500 -0.067 -0.857 0.510 189 164 126 0 0
-135412.2812 -65528.6172 -4065672.2500 -0.594 -0.352 -0.723 118 116 118 0 0
-135606.8594 -65741.4688 -4065123.2500 -0.694 -0.212 -0.688 102 101 103 0 0
-135640.3438 -65549.6328 -4065220.7500 -0.664 -0.340 -0.666 107 106 108 0 0
-177171.9062 -74191.8438 -4032826.7500 0.953 -0.304 -0.007 244 161 169 0 0
-169872.3281 -93274.9531 -4052181.0000 0.775 0.625 0.093 144 143 153 0 0
-244527.6406 -148915.8281 -3946229.0000 0.822 0.386 0.417 77 60 53 0 0
-221773.8281 -131482.4219 -4014108.0000 0.949 -0.101 -0.299 187 183 188 0 0
-218517.2344 -125871.9609 -4029145.2500 0.673 0.713 0.196 162 151 164 0 0
-218959.1406 -126932.7188 -4034577.2500 0.998 0.052 -0.028 60 38 30 0 0
-219026.7344 -127995.3438 -4034508.7500 0.983 -0.018 0.183 60 43 36 0 0
-218953.3438 -127545.6406 -4034810.2500 0.984 -0.043 0.175 53 35 27 0 0
-218924.9219 -127140.3438 -4035039.2500 0.985 -0.009 0.171 54 36 27 0 0
-219050.8594 -126883.6250 -4035021.2500 0.986 0.112 0.124 63 44 34 0 0
-194037.3438 -72555.8750 -4091123.0000 0.561 -0.796 -0.228 207 216 232 0 0
-222164.0938 -124591.5469 -4035254.0000 0.798 0.574 0.184 73 59 52 0 0
-268993.7188 -79096.8594 -4067327.7500 0.303 -0.801 -0.516 142 113 85 0 0
-313711.8438 -89067.6719 -4051036.2500 0.400 -0.739 -0.542 154 125 93 0 0
-327400.2812 -163675.7812 -4068293.5000 0.927 -0.205 0.314 167 170 187 0 0
-135671.9375 -65833.6016 -4065376.0000 -0.784 -0.281 0.553 86 136 132 0 0
-219196.4531 -128385.3906 -4034451.7500 -0.999 0.033 -0.003 132 120 94 0 0
-219276.7656 -128464.1016 -4034844.0000 -0.997 0.033 -0.069 134 122 94 0 0
-219269.3906 -128020.1797 -4034847.7500 -0.995 0.060 -0.078 132 121 92 0 0
-219239.0469 -128006.8359 -4035214.5000 -0.991 0.054 -0.123 134 122 93 0 0
-219231.5625 -127548.5859 -4034844.7500 -0.998 0.018 0.065 133 120 93 0 0
-219170.3125 -127509.5938 -4035205.2500 -0.979 -0.058 -0.198 133 122 93 0 0
-219192.8906 -127086.9453 -4035216.7500 -0.979 -0.058 -0.198 135 123 96 0 0
-219044.5156 -126974.6875 -4035558.0000 -0.987 -0.059 -0.151 135 124 96 0 0
-218781.8438 -126778.8984 -4036248.5000 -0.965 -0.051 -0.259 141 129 103 0 0
-218767.6406 -126052.2109 -4028616.5000 -0.426 -0.904 0.027 148 141 116 0 0
-219255.8750 -126696.5938 -4035237.7500 -0.961 -0.277 -0.007 134 123 97 0 0
-219132.6562 -126605.6094 -4035585.5000 -0.962 -0.261 -0.086 136 125 99 0 0
-218243.4219 -125222.5312 -4030412.0000 -0.506 -0.806 -0.308 144 134 111 0 0
-260817.6562 -132052.5156 -3979905.5000 -0.848 0.054 -0.527 207 103 135 0 0
-200497.1562 -66028.0391 -4042677.2500 0.586 -0.764 0.269 165 151 116 0 0
-332351.6562 -198183.2031 -4024363.7500 0.604 -0.773 0.192 241 140 162 0 0
-260821.8438 -89591.8047 -4058979.0000 0.353 -0.658 0.665 5 6 8 0 0
-326354.8125 -183135.9219 -4042327.7500 0.731 -0.675 0.097 226 118 134 0 0
-313672.5312 -173329.1094 -4082302.2500 -0.704 -0.225 -0.674 178 170 158 0 0
-312679.1875 -172128.5625 -4083457.0000 -0.791 -0.455 -0.409 175 169 158 0 0
-313040.5625 -172304.4531 -4083293.2500 -0.937 -0.317 -0.148 177 171 159 0 0
-313580.8750 -173295.4844 -4083721.0000 -0.538 -0.694 -0.479 173 169 159 0 0
-313726.0938 -172935.2812 -4083995.0000 -0.939 -0.328 -0.106 176 170 160 0 0
-313383.0625 -171865.5000 -4083453.5000 -0.982 0.188 -0.005 180 173 162 0 0
-313406.8125 -171532.1719 -4083385.5000 -0.922 -0.037 -0.385 181 173 162 0 0
-329666.8750 -183131.7500 -4040084.5000 -0.807 0.314 -0.500 216 96 111 0 0
-313714.1875 -171921.0000 -4084116.2500 -0.955 0.022 0.295 179 172 162 0 0
-332628.5938 -182665.3906 -4047771.5000 0.564 -0.796 0.219 199 208 180 0 0
-334299.8750 -180895.7031 -4053191.0000 -0.218 0.045 -0.975 215 122 149 0 0
-327267.7812 -172472.4062 -4076101.0000 -0.960 0.095 0.264 180 171 142 0 0
-312103.4688 -146194.0625 -4087993.2500 0.572 -0.735 0.364 168 146 109 0 0
-324341.5312 -163360.3438 -4073568.0000 -0.880 0.262 -0.397 78 76 63 0 0
-349013.6562 -201012.3281 -4044330.7500 -0.225 0.159 -0.961 220 100 115 0 0
-334136.9688 -174189.3125 -4056721.2500 0.765 -0.456 -0.455 176 169 131 0 0
-334255.4688 -174109.7344 -4056936.2500 0.788 -0.477 -0.390 174 169 130 0 0
-352463.4062 -203626.0625 -4046267.0000 -0.989 -0.113 -0.097 220 114 129 0 0
-330212.7188 -160964.7812 -4077721.7500 0.054 -0.886 0.461 166 149 113 0 0
-345911.7812 -168831.6719 -4073300.2500 0.600 -0.461 -0.654 184 170 135 0 0
-346037.5312 -168641.9688 -4073345.2500 0.617 -0.362 -0.699 182 169 133 0 0
-346274.0312 -168923.3906 -4073362.5000 0.498 -0.334 -0.800 183 169 132 0 0
-322169.3438 -45078.5078 -4125993.0000 0.472 -0.866 0.166 176 162 135 0 0
-219120.1875 -127199.2344 -4036080.2500 -0.294 -0.468 -0.834 193 228 243 0 0
-222057.1719 -124495.5781 -4035781.2500 -0.925 -0.370 -0.088 188 233 255 0 0
-293189.5938 -132025.9062 -3965527.7500 -0.096 -0.930 -0.355 65 58 56 0 0
-293263.8438 -132636.0000 -3970394.7500 0.255 0.082 -0.963 238 165 185 0 0
-260715.2969 -89824.0703 -4059299.2500 0.251 -0.571 0.781 171 66 86 0 0
-299384.9375 -167738.2031 -4079834.7500 0.144 -0.456 -0.878 191 103 126 0 0
-312933.5312 -172285.4062 -4083468.0000 0.559 -0.600 -0.571 154 149 119 0 0
-313281.1875 -172588.9531 -4083407.7500 0.544 -0.571 -0.615 152 149 118 0 0
-313515.7812 -172705.9844 -4083506.7500 0.544 -0.571 -0.615 152 150 119 0 0
-313375.3438 -172400.9062 -4083638.5000 0.537 -0.523 -0.662 153 150 119 0 0
-314009.9375 -172820.3594 -4082802.0000 0.716 -0.458 -0.526 147 145 115 0 0
-313514.7500 -172129.4219 -4083649.5000 0.573 -0.441 -0.691 153 150 119 0 0
-313469.0000 -172210.2969 -4083869.0000 0.536 -0.520 -0.665 155 150 120 0 0
-313262.4375 -171636.2500 -4083943.7500 0.107 -0.011 -0.994 156 151 121 0 0
-313744.6875 -172498.3125 -4084004.5000 0.403 -0.576 -0.711 154 150 120 0 0
-313410.0938 -171392.6250 -4083962.5000 0.107 -0.011 -0.994 155 151 121 0 0
-313962.8125 -172554.3281 -4084088.2500 0.412 -0.516 -0.751 154 150 121 0 0
-334750.0000 -186458.0781 -4053448.7500 -0.014 -0.690 0.724 110 77 58 0 0
-345776.0625 -168747.2656 -4073170.7500 0.174 -0.684 0.708 151 125 98 0 0
-243508.5625 -53297.6641 -3846834.2500 -0.193 -0.878 -0.439 184 175 173 0 0
-170521.7500 -56965.4453 -3827633.0000 -0.537 0.173 -0.825 159 81 79 0 0
